# .PCD v0.7 - Point Cloud Data file format
VERSION 0.7
FIELDS x y z intensity
SIZE 4 4 4 4
TYPE F F F F
COUNT 1 1 1 1
WIDTH 1334
HEIGHT 1
VIEWPOINT 0 0 0 1 0 0 0
POINTS 1334
DATA ascii
-0.13197923 -1.9085938 -0.062825307 1
0.52394152 -1.9711363 -0.063484423 1
0.76067674 -1.936421 -0.060844418 1
0.97136962 -1.9092418 -0.060921516 1
1.1459754 -1.9143056 -0.059245236 1
1.3352363 -1.904608 -0.056946788 1
1.5358475 -1.9421468 -0.055511907 1
1.6934059 -1.9966118 -0.0557146 1
1.822027 -1.9571807 -0.054059464 1
1.9626967 -1.9629015 -0.052731398 1
2.0922406 -1.9691671 -0.053398319 1
2.2102449 -1.951685 -0.051528305 1
2.3080006 -1.9771649 -0.051564213 1
2.4183891 -1.9680619 -0.050674785 1
2.5261693 -1.965577 -0.04979147 1
2.6319849 -1.9682977 -0.048549809 1
2.7357745 -1.9490402 -0.047022574 1
2.8315542 -1.9854217 -0.047701012 1
2.9319017 -1.9778757 -0.046356115 1
3.031184 -1.9745531 -0.046091102 1
3.129894 -1.9796118 -0.044775613 1
3.2270997 -1.9902503 -0.043693662 1
3.3331687 -1.9812891 -0.044041399 1
3.4400721 -1.9808494 -0.044451263 1
3.5470057 -1.9911904 -0.042309798 1
3.6530344 -2.007236 -0.04128411 1
3.7391663 -1.9914194 -0.04129976 1
3.8288636 -1.9816552 -0.040693861 1
3.9567828 -1.9973613 -0.040160306 1
4.0168538 -1.9435016 -0.03807155 1
4.138648 -1.9947704 -0.038352963 1
4.3317728 -2.003572 -0.037063964 1
4.4120035 -1.9523168 -0.034442503 1
4.5384812 -2.0282786 -0.037211113 1
4.6372013 -1.9907922 -0.034363434 1
-2.5631783 -1.80489 -0.070405692 1
-1.0776784 -1.8326372 -0.064715177 1
-0.69722795 -1.814929 -0.065233879 1
0.1633985 -1.8602194 -0.06172492 1
0.39259386 -1.8478963 -0.064304307 1
0.64714885 -1.8205819 -0.062031269 1
0.88745534 -1.8035535 -0.058762461 1
1.0971214 -1.7885181 -0.058670729 1
1.2719653 -1.8069587 -0.056171849 1
1.4550072 -1.8046262 -0.055974912 1
1.6482979 -1.8508629 -0.055981055 1
1.7927225 -1.8209889 -0.052884154 1
1.9228618 -1.8514266 -0.051363736 1
2.0631545 -1.8660169 -0.050839756 1
2.1801002 -1.8139342 -0.049123619 1
2.1925128 -1.8799427 -0.052651968 1
2.3145676 -1.873089 -0.04953564 1
2.4299536 -1.8673464 -0.04930741 1
2.5329368 -1.8721485 -0.047890704 1
2.6442466 -1.8493208 -0.046107367 1
2.7402153 -1.8601627 -0.046938244 1
2.8460419 -1.8796034 -0.04534179 1
2.9520738 -1.871691 -0.04565597 1
3.0578628 -1.8724468 -0.045045894 1
3.1628182 -1.8843547 -0.042319145 1
3.2652812 -1.8937124 -0.043736592 1
3.3778274 -1.8888772 -0.04323025 1
3.4502325 -1.8825085 -0.04205342 1
3.5244427 -1.8799872 -0.040804289 1
3.6390615 -1.8930659 -0.040532246 1
3.7528 -1.9139526 -0.040486891 1
3.7872152 -1.8745228 -0.038131643 1
3.9036551 -1.9034269 -0.038777038 1
4.0316963 -1.8850465 -0.036532868 1
4.126699 -1.8723093 -0.037068523 1
4.2447081 -1.9240888 -0.037360311 1
4.3227844 -1.8669288 -0.034629852 1
4.5209255 -1.9117056 -0.034685306 1
4.6151314 -1.8518776 -0.032083899 1
-1.9284804 -1.7122083 -0.066556871 1
-0.33102798 -1.7603726 -0.062508605 1
-0.0083925724 -1.7135956 -0.063258402 1
0.29418087 -1.6874299 -0.06093996 1
0.53381252 -1.6970223 -0.060368545 1
0.78585422 -1.6848376 -0.058691338 1
1.397666 -1.7035096 -0.055837851 1
1.582303 -1.7157636 -0.054313436 1
1.7546232 -1.7326193 -0.052464306 1
1.9144111 -1.7514892 -0.051826723 1
2.0411272 -1.7892884 -0.05036873 1
2.1630137 -1.7368414 -0.048947878 1
2.2978201 -1.7678345 -0.048487075 1
2.4202845 -1.7645818 -0.048572622 1
2.5405362 -1.771214 -0.047485501 1
2.6581984 -1.7511337 -0.045721527 1
2.7721801 -1.7696244 -0.044513747 1
2.8816371 -1.7939835 -0.043293469 1
2.8915222 -1.7304615 -0.04381429 1
2.9996793 -1.7599097 -0.043550689 1
3.1116776 -1.7645042 -0.043594763 1
3.2222385 -1.7793308 -0.042252891 1
3.3305063 -1.7983422 -0.041910309 1
3.4634914 -1.7752213 -0.039993204 1
3.5541847 -1.8304793 -0.041545659 1
3.58427 -1.7854146 -0.039083865 1
3.7059588 -1.8000424 -0.039790373 1
3.8260648 -1.8254915 -0.039616462 1
3.9063768 -1.7679666 -0.036549732 1
4.0516715 -1.7850295 -0.034841083 1
4.175458 -1.8302485 -0.035892434 1
4.2279 -1.7855154 -0.034884822 1
4.3057661 -1.7514827 -0.036385704 1
4.4303498 -1.8189439 -0.034704112 1
4.5232339 -1.7504538 -0.032703891 1
4.6896296 -1.8027687 -0.033512488 1
-1.411154 -1.6346538 -0.065362178 1
-0.93499327 -1.5843216 -0.063244715 1
-0.55369449 -1.5914612 -0.063485995 1
-0.1763413 -1.5661212 -0.058716945 1
1.0207568 -1.6797956 -0.056874473 1
1.2374887 -1.6853422 -0.053765494 1
1.5378926 -1.6190634 -0.051846556 1
1.7134373 -1.6355647 -0.053175949 1
1.8801124 -1.6591716 -0.052847221 1
2.0283661 -1.6488259 -0.049697109 1
2.1696894 -1.6434799 -0.048232853 1
2.2854486 -1.6902946 -0.048741095 1
2.4105949 -1.6542714 -0.04776378 1
2.5374601 -1.6639848 -0.046905484 1
2.6633172 -1.650046 -0.043607425 1
2.7814078 -1.6689502 -0.044749118 1
2.9009051 -1.6592785 -0.045889992 1
3.020649 -1.6626699 -0.044807605 1
3.1395361 -1.6831783 -0.039718844 1
3.2662814 -1.6661977 -0.040423494 1
3.3673868 -1.7204006 -0.039757557 1
3.3943338 -1.6605459 -0.040380228 1
3.5350883 -1.666687 -0.039980695 1
3.6457744 -1.7094574 -0.038947355 1
3.7826054 -1.7345743 -0.038656909 1
3.8209715 -1.6858971 -0.035987832 1
3.9716086 -1.6943401 -0.034577854 1
4.1269588 -1.7095299 -0.03475906 1
4.2012677 -1.6749768 -0.034167681 1
4.3596325 -1.7121176 -0.031794608 1
4.4239116 -1.6540134 -0.032852512 1
4.5911274 -1.7025371 -0.031255618 1
4.6863127 -1.671834 -0.031239524 1
-2.3985467 -1.4692655 -0.066857859 1
0.1445148 -1.5391486 -0.060028162 1
0.43845987 -1.5270822 -0.059847221 1
0.67394233 -1.5502847 -0.059746873 1
0.92611921 -1.5551121 -0.057693109 1
1.1656461 -1.5707024 -0.053578895 1
1.3700173 -1.5800748 -0.054307196 1
1.6767099 -1.5389019 -0.050485186 1
1.850616 -1.5679207 -0.051038571 1
1.9898267 -1.509133 -0.049448177 1
2.1509361 -1.5558378 -0.047601789 1
2.2941089 -1.5604106 -0.046004809 1
2.4298682 -1.567803 -0.046454191 1
2.5629611 -1.5481846 -0.043747798 1
2.6956506 -1.5383455 -0.040702995 1
2.8068638 -1.5627801 -0.042958278 1
2.9340968 -1.5639378 -0.041403674 1
3.0590618 -1.5697858 -0.041117713 1
3.159049 -1.6151235 -0.041394524 1
3.2050853 -1.5511304 -0.04041259 1
3.3273399 -1.5766705 -0.039169811 1
3.4615502 -1.5761575 -0.037990153 1
3.5954216 -1.5867518 -0.036446624 1
3.7299666 -1.6045593 -0.035606965 1
3.8635802 -1.6302345 -0.035576083 1
3.9089899 -1.5729873 -0.034491427 1
4.0205708 -1.6386187 -0.034600049 1
4.1203537 -1.5707353 -0.033175196 1
4.2583046 -1.6212535 -0.033589218 1
4.3174906 -1.5629915 -0.032595918 1
4.5369692 -1.58242 -0.031198632 1
-1.7737513 -1.4121253 -0.065366432 1
-1.2385864 -1.3749923 -0.061865076 1
-0.41453266 -1.3685683 -0.065980561 1
0.5983789 -1.3828613 -0.056978304 1
0.83209312 -1.4225749 -0.056510828 1
1.0795746 -1.4417695 -0.054948311 1
1.3115321 -1.4681286 -0.052306578 1
1.513157 -1.4901155 -0.053008735 1
1.6651144 -1.4166023 -0.049772885 1
1.8224275 -1.4734012 -0.047610067 1
1.970247 -1.4181612 -0.044980217 1
2.1358895 -1.4686646 -0.044830196 1
2.2765853 -1.4269017 -0.044505652 1
2.4224002 -1.4810586 -0.046315849 1
2.5612631 -1.4634911 -0.043539174 1
2.6983571 -1.4524099 -0.041776057 1
2.8325 -1.4428 -0.042744018 1
2.9672027 -1.4507339 -0.040427048 1
3.0987635 -1.4616172 -0.04007123 1
3.2280672 -1.4847258 -0.038126759 1
3.3686993 -1.474261 -0.03812078 1
3.5097079 -1.4783895 -0.036681492 1
3.6513233 -1.4922903 -0.034863677 1
3.8267663 -1.4891458 -0.033496842 1
3.9814901 -1.5244417 -0.034994543 1
4.0324464 -1.4636742 -0.033425096 1
4.2041693 -1.478121 -0.031880718 1
4.3807163 -1.5054051 -0.030689161 1
4.4723387 -1.4646522 -0.02931902 1
4.6560392 -1.5103834 -0.027236514 1
-0.77639914 -1.3479646 -0.062553816 1
-0.042960167 -1.3613605 -0.062330857 1
0.29713631 -1.3708521 -0.058972374 1
1.0003988 -1.3107669 -0.052387286 1
1.236066 -1.3374408 -0.053480398 1
1.4636478 -1.3777452 -0.050835222 1
1.6204643 -1.299382 -0.049313243 1
1.8217171 -1.3571336 -0.04567815 1
2.1136324 -1.3625315 -0.046335842 1
2.2629371 -1.3248199 -0.04501592 1
2.4199789 -1.3988589 -0.042785406 1
2.5628707 -1.3796195 -0.041408435 1
2.702589 -1.3611919 -0.043102499 1
2.845222 -1.3669827 -0.039479509 1
2.9836273 -1.3724594 -0.039104361 1
3.1201222 -1.3901129 -0.037430819 1
3.2671118 -1.372722 -0.036795102 1
3.4151878 -1.3670352 -0.036144193 1
3.5461261 -1.4024427 -0.037852988 1
3.6099491 -1.3478004 -0.034374095 1
3.7393243 -1.3973397 -0.0355772 1
3.91085 -1.3930848 -0.033434022 1
4.0856538 -1.3961624 -0.03207019 1
4.2640219 -1.4170331 -0.029293517 1
4.3561659 -1.3656178 -0.029246133 1
4.545085 -1.3999974 -0.027316824 1
4.7410393 -1.4423959 -0.02731438 1
-3.8362727 -1.1323093 -0.068800561 1
-2.2095187 -1.1494589 -0.064079717 1
-0.22052932 -1.1840659 -0.060484182 1
0.13895726 -1.1946708 -0.058772691 1
0.47215056 -1.2234827 -0.056033581 1
0.76905966 -1.2541671 -0.054016203 1
1.1676203 -1.2052885 -0.050797261 1
1.4057499 -1.2546968 -0.048932109 1
1.7802222 -1.2321401 -0.048072539 1
1.9740727 -1.2993939 -0.045019951 1
2.129837 -1.2554032 -0.043457609 1
2.2863185 -1.2223257 -0.041935399 1
2.414042 -1.3008375 -0.042550445 1
2.5638576 -1.2854513 -0.040641017 1
2.7102003 -1.2716206 -0.041555218 1
2.8576908 -1.2774783 -0.039017592 1
3.001853 -1.2887422 -0.037751179 1
3.1426582 -1.3028681 -0.03850073 1
3.1969857 -1.2256691 -0.037012603 1
3.3389783 -1.259135 -0.035939109 1
3.4764454 -1.3039829 -0.033701848 1
3.6504123 -1.2761339 -0.031775791 1
3.7833092 -1.330444 -0.032857966 1
3.8302932 -1.2492748 -0.032693975 1
3.9588301 -1.3271867 -0.029784251 1
4.0138583 -1.2515121 -0.028502442 1
4.1445918 -1.3247582 -0.031154269 1
4.2347908 -1.2669961 -0.030754251 1
4.4273643 -1.2924006 -0.027979691 1
4.6267753 -1.3260965 -0.026961917 1
4.7072048 -1.256659 -0.024624841 1
-2.9167664 -1.1054771 -0.064103529 1
-1.5752108 -1.1372244 -0.061215498 1
-1.0532022 -1.1284156 -0.059797168 1
-0.59380245 -1.1303403 -0.060737167 1
0.65808606 -1.0930144 -0.052546691 1
0.94878697 -1.1415238 -0.05051484 1
1.3426795 -1.1160434 -0.048305098 1
1.5721923 -1.1764289 -0.047290482 1
1.7439183 -1.114005 -0.044646442 1
1.9446154 -1.1803919 -0.045648269 1
2.1097231 -1.1398586 -0.043449625 1
2.2759943 -1.113245 -0.040529735 1
2.4414275 -1.1965234 -0.041569248 1
2.5965469 -1.1825917 -0.040738881 1
2.7494626 -1.17521 -0.041078966 1
2.9028461 -1.1894112 -0.037575208 1
3.0509751 -1.1990206 -0.038620126 1
3.2245872 -1.1383483 -0.035169564 1
3.3713627 -1.1767216 -0.033916593 1
3.5324061 -1.176739 -0.032882415 1
3.6932712 -1.1885275 -0.03209364 1
3.8822882 -1.165516 -0.032124311 1
4.1024227 -1.1841247 -0.02890379 1
4.3029833 -1.1870133 -0.029503629 1
4.5048552 -1.2137944 -0.026786279 1
4.8278866 -1.1992508 -0.02464512 1
-0.023666859 -1.0105084 -0.057189807 1
0.32823157 -1.041419 -0.056111537 1
1.1320797 -1.0411772 -0.047790244 1
1.5189626 -1.0367585 -0.046976913 1
1.9127359 -1.0560861 -0.044573613 1
2.0864761 -1.0169331 -0.042503644 1
2.4376736 -1.0878904 -0.040784489 1
2.9197707 -1.0954289 -0.035348725 1
3.0736489 -1.1101973 -0.035918932 1
3.2518897 -1.0390686 -0.034502037 1
3.4040008 -1.0860455 -0.032059588 1
3.5941124 -1.0376053 -0.031815201 1
3.7401519 -1.1035101 -0.030202426 1
3.9647963 -1.1041783 -0.028197542 1
4.167819 -1.094851 -0.028550178 1
4.3751769 -1.1060104 -0.026765216 1
4.5849795 -1.1327599 -0.025836818 1
4.7018228 -1.0706849 -0.024357965 1
-1.9962864 -0.84815407 -0.061803117 1
-1.3666713 -0.87581247 -0.059101962 1
-0.84510446 -0.9023416 -0.057046395 1
-0.38756371 -0.9353767 -0.05729571 1
0.53313017 -0.91060984 -0.051684238 1
0.84741557 -0.9742865 -0.050278645 1
1.314366 -0.94812864 -0.04727627 1
1.701158 -0.9753111 -0.044323757 1
1.8847703 -0.9274441 -0.041650362 1
3.4415398 -0.98568678 -0.031571258 1
3.6723189 -0.95232689 -0.030668426 1
3.8230493 -1.0195692 -0.030977491 1
4.0252166 -1.01055 -0.027163161 1
4.2375736 -1.003601 -0.026792265 1
4.4496603 -1.0226544 -0.024258628 1
4.5647492 -0.95107239 -0.02282064 1
4.7975359 -0.97596443 -0.021728303 1
-4.7091966 -0.7295773 -0.066717103 1
-3.5962701 -0.73511004 -0.064646289 1
-2.7004163 -0.7580598 -0.062570095 1
0.18722749 -0.85716081 -0.053171575 1
0.738065 -0.79003209 -0.049298473 1
1.0412136 -0.86909229 -0.048609268 1
1.5073409 -0.87873966 -0.044010818 1
1.6967757 -0.81509024 -0.043259703 1
2.0641398 -0.88320279 -0.041760899 1
3.5151436 -0.89824992 -0.028882913 1
3.7227187 -0.84706122 -0.029092684 1
3.8782759 -0.92233145 -0.028960306 1
4.0915027 -0.90918291 -0.026281882 1
4.3095703 -0.91001034 -0.025096174 1
4.9065108 -0.86881733 -0.020777049 1
-0.62952185 -0.69063544 -0.056849629 1
-0.16136646 -0.76309532 -0.053724058 1
0.39633775 -0.71198082 -0.052011885 1
1.245344 -0.78661925 -0.04491609 1
1.449921 -0.71696752 -0.042062983 1
1.8938446 -0.77712154 -0.039245252 1
3.5602982 -0.78048533 -0.029041825 1
3.7776794 -0.73631823 -0.026691623 1
3.9373422 -0.82388306 -0.025148697 1
4.1592898 -0.80776823 -0.024665967 1
4.4206767 -0.83335447 -0.022321148 1
4.6567545 -0.84724241 -0.020210069 1
-1.7928529 -0.54647976 -0.064196855 1
-1.1751621 -0.61300564 -0.061083101 1
0.06568265 -0.60470617 -0.050983012 1
0.62483573 -0.59672946 -0.047645256 1
0.94820988 -0.68539578 -0.047178596 1
1.1648691 -0.60042316 -0.044318732 1
1.6542047 -0.65970314 -0.040028714 1
3.6088684 -0.6675114 -0.025350329 1
4.0003009 -0.71447176 -0.023667306 1
4.2681961 -0.7201395 -0.022200361 1
4.512393 -0.71075749 -0.022205425 1
4.762641 -0.72773206 -0.019791415 1
-2.4389222 -0.44190633 -0.059048418 1
-0.39118314 -0.50442904 -0.054237463 1
0.84998095 -0.49034098 -0.045834951 1
1.3875419 -0.53786421 -0.040031612 1
3.6608715 -0.53663778 -0.025400328 1
3.8354268 -0.6180017 -0.025461521 1
4.1084623 -0.60691321 -0.023748416 1
4.3526831 -0.59281343 -0.020735519 1
4.6078568 -0.59370869 -0.018291501 1
4.8719482 -0.61304051 -0.016881106 1
-3.3308957 -0.35979313 -0.061877441 1
-0.91062117 -0.40449446 -0.056004383 1
0.2995286 -0.4638392 -0.048836946 1
1.0900177 -0.41697702 -0.040333599 1
1.6009901 -0.4751499 -0.039986007 1
3.9370203 -0.51051593 -0.022795018 1
4.1861415 -0.47336408 -0.021293633 1
4.4485216 -0.45088726 -0.020357825 1
4.7153072 -0.46238887 -0.016711731 1
5.0277147 -0.50619227 -0.016073525 1
-5.8485317 -0.19631183 -0.068695284 1
-4.426528 -0.28776601 -0.062933743 1
-1.5206466 -0.29646921 -0.060269047 1
-0.13407707 -0.34645662 -0.050008584 1
0.54220128 -0.34461832 -0.046255957 1
1.315333 -0.33776993 -0.040709436 1
3.7583072 -0.41437283 -0.023755405 1
4.0103531 -0.3572101 -0.022705359 1
-2.1594088 -0.14827782 -0.056686997 1
-0.64471412 -0.21090041 -0.053289719 1
0.126755 -0.20643076 -0.046870898 1
0.8015132 -0.26072127 -0.040066525 1
1.5505704 -0.28985232 -0.037710868 1
3.8216801 -0.26483896 -0.020384699 1
4.2725191 -0.33068505 -0.018399272 1
4.5487728 -0.31320742 -0.017375756 1
4.8653879 -0.34750766 -0.014445197 1
-1.2232723 -0.078815348 -0.055060394 1
0.39496732 -0.089767396 -0.043475024 1
1.044839 -0.17244521 -0.039575972 1
1.2932193 -0.10748678 -0.038067155 1
4.0874882 -0.2149764 -0.017121352 1
4.3671126 -0.18019111 -0.015673086 1
4.6938853 -0.18833233 -0.014063337 1
4.9974127 -0.19094886 -0.011526396 1
-3.0354505 -0.01185713 -0.059561796 1
-0.35562778 -0.052449919 -0.048151091 1
0.66927862 0.0018815175 -0.03943675 1
1.5467745 -0.07110633 -0.034322523 1
3.894501 -0.095284872 -0.018475421 1
4.1769361 -0.045191087 -0.015933424 1
-4.1299152 0.13516012 -0.062238388 1
-1.8580723 0.11768781 -0.054508887 1
-0.90810704 0.1068408 -0.049051218 1
-0.066693783 0.088528171 -0.044731513 1
0.93949449 0.080030344 -0.037142474 1
4.5126462 -0.027024843 -0.015266661 1
4.8185797 -0.02063686 -0.010271404 1
5.1344585 -0.02820712 -0.0075444169 1
-5.4946723 0.29677755 -0.06420479 1
0.22653532 0.20660996 -0.041670598 1
1.2106656 0.13656493 -0.034651779 1
1.4753678 0.18314599 -0.034210213 1
1.745378 0.19377743 -0.030279325 1
3.9755495 0.085740827 -0.016880287 1
4.3121047 0.10666773 -0.011970349 1
4.6283035 0.14865291 -0.0098468112 1
-2.6858721 0.28865758 -0.054020613 1
-1.5230119 0.34165016 -0.050975248 1
-0.59441447 0.27428299 -0.045216501 1
0.52546024 0.29738647 -0.037966199 1
3.7612157 0.20231831 -0.01659096 1
4.9583383 0.17718884 -0.010052949 1
-0.28440189 0.42659727 -0.043852523 1
0.82189441 0.36926913 -0.035178535 1
4.1064324 0.26074737 -0.014282421 1
4.4253588 0.31573802 -0.010077992 1
-7.2890615 0.62516695 -0.064955279 1
-3.7577288 0.50379223 -0.057550624 1
-1.1749959 0.53475052 -0.04650262 1
1.1135106 0.42547244 -0.03370329 1
1.4068453 0.45238218 -0.030702252 1
1.6983832 0.45104969 -0.026198199 1
3.8853388 0.40002194 -0.015134989 1
4.7586288 0.35949287 -0.0086620804 1
5.1186767 0.3923327 -0.0056326818 1
-2.3589671 0.58421695 -0.055265464 1
0.047478437 0.53321832 -0.038864218 1
0.37403297 0.62147009 -0.035473831 1
3.6496594 0.51810372 -0.013707917 1
4.2078838 0.47557989 -0.010131318 1
4.5413389 0.52600902 -0.0053855712 1
-5.0920911 0.7476418 -0.05979459 1
-0.83230305 0.71129549 -0.044821944 1
0.6985836 0.68638855 -0.032490384 1
3.4021103 0.63453841 -0.013900715 1
3.9762425 0.63001478 -0.010542484 1
4.9109387 0.59464908 -0.0040357057 1
5.3324003 0.58087647 -0.0004365854 1
-3.3844104 0.84861058 -0.060453311 1
-1.9740648 0.81948739 -0.050727062 1
-0.46502566 0.83845961 -0.039776661 1
1.015963 0.73534542 -0.031000569 1
1.3295953 0.76171499 -0.029562043 1
1.643049 0.75292361 -0.025722414 1
1.9426687 0.7393446 -0.024587775 1
4.3155742 0.70757276 -0.0059785219 1
3.7294908 0.77395469 -0.010602224 1
4.6884933 0.79625732 -0.0030766744 1
5.125021 0.81884366 -0.00072415546 1
-1.5662923 1.0090538 -0.044673007 1
-0.098266125 0.93772507 -0.035233885 1
0.266294 1.0092294 -0.030971954 1
2.2820473 0.9892177 -0.017673478 1
2.5804718 0.92529321 -0.017169625 1
3.4683156 0.9189207 -0.012482274 1
4.0739546 0.88616174 -0.0071511799 1
-6.8349857 1.1789325 -0.060814828 1
-2.931721 1.1184566 -0.052724052 1
0.6189301 1.0669222 -0.029035693 1
0.96907055 1.0953228 -0.026553079 1
1.3126488 1.0985838 -0.023947086 1
1.6477696 1.0780479 -0.021150457 1
1.9709229 1.0413932 -0.019120634 1
3.1912575 1.0438826 -0.012848185 1
3.8137779 1.0453637 -0.0063980017 1
4.4491777 0.99284333 -0.0021226769 1
-4.7696695 1.2246212 -0.066303186 1
-1.1632836 1.1740245 -0.040692914 1
2.8998146 1.1500932 -0.012260461 1
4.8961945 1.0468149 0.00030618533 1
5.3184323 1.108132 0.003925465 1
-3.975621 1.3768538 -0.0296236 1
-2.4777646 1.3553121 -0.046931956 1
-0.74496841 1.2910591 -0.034717478 1
2.5939183 1.2457712 -0.012311923 1
2.949765 1.2727017 0.023327161 1
3.5378749 1.2050616 -0.0072230184 1
4.1939559 1.1917896 -0.0024870019 1
-0.341851 1.3922472 -0.031666376 1
2.2707345 1.3414596 -0.014844779 1
3.2446294 1.338061 -0.0055972468 1
4.6482406 1.2697959 0.0015706355 1
-9.4438953 1.668151 -0.06478148 1
-2.0165257 1.5527548 -0.041759152 1
0.057026863 1.4648182 -0.029155953 1
0.45705438 1.4969733 -0.025121063 1
0.84470725 1.507901 -0.022164211 1
1.2192639 1.499877 -0.020285645 1
1.583688 1.4653256 -0.018030589 1
1.933393 1.4154254 -0.016758211 1
3.9189157 1.377422 -0.0018607629 1
5.0784702 1.3615448 0.0056677777 1
-6.3146887 1.6721734 -0.056016989 1
-3.4972134 1.6843768 -0.027023587 1
3.6254835 1.5613437 -0.0022262423 1
4.3803792 1.4858021 0.0031780768 1
5.5438423 1.4562435 0.01019408 1
-1.5462508 1.7053299 -0.036192328 1
0.001819849 1.6896694 0.013164634 1
4.8183155 1.6139448 0.0072813733 1
2.2609892 1.7079409 -0.0086552827 1
4.0947309 1.7106901 0.0027168337 1
1.5140821 1.885452 -0.013180992 1
1.8893502 1.8328406 -0.014539937 1
3.4460595 1.7755195 0.048748322 1
5.2930012 1.746572 0.012039712 1
-5.7644186 2.1148674 -0.052703213 1
0.27060008 1.9848573 -0.021341946 1
0.69645333 1.9844826 -0.019396286 1
1.1184698 1.9342638 -0.014468716 1
3.1131783 1.958762 0.048964821 1
3.7855244 1.917219 0.0038871621 1
4.5372763 1.8673182 0.0083962008 1
-3.1693439 2.0923111 -0.045019478 1
-2.6101582 2.2759664 -0.038054157 1
-0.22263145 2.217056 0.028918745 1
2.7579701 2.1269672 0.04962673 1
4.2337117 2.1223185 0.0088567454 1
5.0210934 2.0445859 0.013014121 1
2.2458644 2.1930401 -0.0052669565 1
3.5342722 2.2142131 0.057168532 1
5.5444789 2.188097 0.01924552 1
-4.0544958 2.4074697 0.003956534 1
-2.0623176 2.4232652 -0.032897353 1
1.8492659 2.3087847 -0.0056710457 1
4.7215509 2.3345454 0.015091056 1
0.98943186 2.4953997 -0.0089994278 1
1.4275967 2.4200323 -0.0081084566 1
3.1755562 2.4567201 0.055225097 1
3.9058199 2.3820224 0.0082101328 1
0.035584688 2.6099265 -0.016494563 1
0.52665997 2.5582364 -0.01161476 1
5.2582273 2.5334883 0.020638905 1
4.3977032 2.6353815 0.015806589 1
2.3105056 2.7164969 -0.00073727639 1
1.8795961 2.8672287 -0.00028159842 1
-12.667915 3.2124457 -0.063587382 1
-3.8894405 3.0391626 -0.039043512 1
4.0455513 2.9461827 0.015331293 1
4.9432878 2.8855231 0.02189309 1
1.4200897 3.0115404 -0.0013775947 1
-7.4001932 3.3347068 -0.049394242 1
-3.2178731 3.2000694 -0.032010801 1
0.93210101 3.1395526 -0.0032138815 1
2.7527874 3.0953143 0.0092184311 1
5.60602 3.0414529 0.026691608 1
-2.5692368 3.3221061 -0.027181659 1
-0.12789893 3.3255906 -0.0083476119 1
0.41121936 3.2567129 -0.0067539439 1
3.6596713 3.2390175 0.016632602 1
4.5967174 3.2432492 0.023088099 1
-1.9136934 3.3686125 -0.019960344 1
-1.2987943 3.3976994 -0.016196886 1
-0.70443344 3.3856852 -0.012746235 1
2.3048229 3.3408854 0.0064553758 1
5.2707081 3.4309473 0.031146079 1
1.8286496 3.5385661 0.0072139748 1
3.2405262 3.5396795 0.01669962 1
-6.6607108 3.7538896 -0.050490238 1
4.2140059 3.5937996 0.025449514 1
-11.754944 3.9401953 -0.055854533 1
1.3149619 3.7392898 0.0057768766 1
5.9520044 3.7253344 0.038164593 1
2.7849045 3.8303299 0.017213112 1
-5.8204389 4.0351777 -0.04245127 1
0.76427627 3.9244385 0.0037436588 1
4.9054265 3.8459642 0.034045469 1
0.17420292 4.0925136 0.0008674264 1
3.7964144 3.9711542 0.02551771 1
-4.9690356 4.228044 -0.033803076 1
-0.44626474 4.2173858 -0.00081406161 1
2.2886884 4.1285777 0.01623885 1
-4.1428165 4.3609195 -0.026798505 1
-1.1128118 4.3292623 -0.0046871174 1
5.6012363 4.213975 0.041793302 1
-10.787271 4.5670004 -0.049814235 1
-3.3488677 4.4431772 -0.021600779 1
-2.5525367 4.4306793 -0.013367716 1
-1.8104515 4.394176 -0.008091595 1
3.3361862 4.335381 0.027098827 1
4.5049648 4.2963314 0.034808837 1
1.750023 4.4148388 0.015426452 1
1.1689593 4.6781468 0.015395926 1
6.3735681 4.5643845 0.050590299 1
4.0568295 4.7406292 0.037303519 1
5.2109518 4.7320089 0.044837888 1
0.53519726 4.9454603 0.013421061 1
-10.040222 5.2631087 -0.058547013 1
-0.14975047 5.1928816 0.011210795 1
2.2751901 5.0953493 0.027645428 1
3.5606163 5.2206526 0.037936114 1
6.0009804 5.1602859 0.055557314 1
-0.87612915 5.390306 0.010728497 1
4.7743134 5.2821259 0.047388412 1
1.6682116 5.4560795 0.029203072 1
-1.6821396 5.6099443 0.0055866428 1
-7.6689086 5.8015289 -0.034228668 1
-2.5377953 5.7760644 0.0013187565 1
3.0074821 5.7035794 0.039461046 1
-4.436316 5.9867826 -0.010624498 1
0.99108827 5.8651986 0.026552552 1
4.2816525 5.8497286 0.050799891 1
5.5845618 5.813519 0.059272215 1
0.25647783 6.2297335 0.026589392 1
2.3913376 6.2041135 0.040660456 1
3.7275801 6.4503317 0.054057959 1
-0.5526185 6.5956655 0.02543471 1
5.1087346 6.5067844 0.063597873 1
6.5605497 6.4942389 0.073720954 1
1.7053429 6.7122431 0.042195201 1
-1.4415357 6.9517169 0.023517285 1
3.102196 7.0949101 0.056698523 1
-2.4264529 7.3091593 0.019620445 1
0.93504488 7.2583866 0.041961905 1
4.5640173 7.2406888 0.06885875 1
-3.4969456 7.6251478 0.016000971 1
-14.043785 8.2260113 -0.053803213 1
7.4860229 -12.400829 -0.10866246 1
6.3830662 -12.182432 -0.11061177 1
7.8109002 -11.745763 -0.10310333 1
9.1139822 -11.790255 -0.10032801 1
6.7484941 -11.607607 -0.10576217 1
5.6967173 -11.490146 -0.10743469 1
4.7224665 -11.278656 -0.10814756 1
3.8375392 -11.094172 -0.11064023 1
8.1142139 -11.152122 -0.1003269 1
6.0633101 -11.015336 -0.10377698 1
7.0792551 -11.068617 -0.10188513 1
5.1184602 -10.874315 -0.10507082 1
3.1020398 -10.770598 -0.11042836 1
4.2593913 -10.75104 -0.10777879 1
3.5347219 -10.474007 -0.10576864 1
5.4782438 -10.475773 -0.10156611 1
6.3923969 -10.551826 -0.099506855 1
7.3752661 -10.55089 -0.097810805 1
8.3672915 -10.559789 -0.094388694 1
4.6427789 -10.392075 -0.1025756 1
1.1713192 -10.18124 -0.11099765 1
3.9352107 -10.20271 -0.10447491 1
1.6450365 -10.047071 -0.10896301 1
4.9993448 -10.065225 -0.10082777 1
5.8081641 -10.09228 -0.098815583 1
7.6422725 -10.055477 -0.093965992 1
2.0905752 -9.8999968 -0.10728251 1
4.3052893 -9.9201403 -0.10202182 1
0.079089403 -9.7093964 -0.11151987 1
3.5843906 -9.7671967 -0.10331097 1
0.56736398 -9.6579609 -0.10862859 1
1.0253818 -9.601613 -0.10819839 1
5.3255768 -9.7344484 -0.098168701 1
1.4667019 -9.5111561 -0.10581649 1
4.645925 -9.6294832 -0.098593928 1
1.8820505 -9.4159737 -0.10528942 1
3.9411414 -9.5172539 -0.098896563 1
7.8848186 -9.5811996 -0.090557374 1
5.6227646 -9.4008837 -0.094606794 1
4.2727785 -9.2728128 -0.095765546 1
4.9604206 -9.3407078 -0.095405422 1
0.12948155 -9.0944195 -0.10639287 1
0.55499721 -9.1133223 -0.10863294 1
3.6208215 -9.1865053 -0.099419303 1
0.98208666 -9.0749722 -0.10567116 1
1.3904033 -9.0163879 -0.1027821 1
5.2550488 -9.0656662 -0.094207622 1
1.7756336 -8.9543686 -0.10223704 1
3.9437344 -8.9713421 -0.095073298 1
4.5860682 -9.0494175 -0.096290804 1
-1.7568707 -8.8309727 -0.11124583 1
2.1438265 -8.8767157 -0.10189412 1
3.3414192 -8.8554459 -0.09726876 1
5.8229675 -8.9178867 -0.06799078 1
6.6298733 -8.9769688 -0.089002252 1
-2.2259448 -8.6573486 -0.10825214 1
2.4978991 -8.7681446 -0.099036962 1
4.2478333 -8.7726316 -0.094139375 1
4.8705115 -8.791502 -0.092040636 1
5.5232477 -8.7785044 -0.091151044 1
7.441186 -8.8685226 -0.087045923 1
0.082060814 -8.5873728 -0.10496978 1
0.48278618 -8.6174059 -0.10403674 1
0.87590027 -8.6160269 -0.10174577 1
1.2520369 -8.6011887 -0.1007505 1
2.8325889 -8.6561298 -0.097749904 1
3.654964 -8.6773663 -0.093389563 1
6.1464481 -8.750926 -0.088211924 1
-2.7507687 -8.4934492 -0.11313283 1
-0.32585835 -8.5279512 -0.10519277 1
1.6111181 -8.5778694 -0.10158078 1
1.9640536 -8.5140247 -0.098595105 1
3.1505094 -8.5279865 -0.095762141 1
4.531487 -8.5626564 -0.092270613 1
6.8601103 -8.6242771 -0.086525068 1
-0.73336267 -8.4314461 -0.10368653 1
2.2978501 -8.4505043 -0.098356366 1
3.9511762 -8.5136118 -0.093111373 1
5.1400046 -8.5514841 -0.090931296 1
5.7751517 -8.5022373 -0.089735501 1
-3.223207 -8.2466402 -0.11062395 1
-1.1669939 -8.3298111 -0.1063054 1
2.6195617 -8.3608856 -0.096133031 1
3.4514928 -8.39363 -0.094495319 1
4.7992578 -8.3575087 -0.091991521 1
6.3748107 -8.4302502 -0.08477813 1
-1.5761776 -8.1680603 -0.10372529 1
0.78508759 -8.1955147 -0.099438906 1
1.1310672 -8.216094 -0.099916875 1
1.4756836 -8.1981773 -0.09701094 1
2.9260125 -8.2582903 -0.093887553 1
3.7359056 -8.2446728 -0.092314854 1
4.2299929 -8.3391495 -0.09228833 1
5.3869863 -8.3001966 -0.088266298 1
0.062550783 -8.1013575 -0.10068311 1
0.42988086 -8.1560984 -0.099380471 1
1.7983391 -8.1915693 -0.099397972 1
2.1233323 -8.1252565 -0.094002731 1
3.2171845 -8.1500092 -0.092690483 1
4.490303 -8.1503601 -0.090049952 1
6.0015211 -8.2145424 -0.086266786 1
7.073225 -8.2807589 -0.084674552 1
-3.7034783 -7.9703212 -0.11006624 1
-2.0050893 -7.9932766 -0.10461786 1
-0.30584645 -8.0154734 -0.10074151 1
2.4272828 -8.0743599 -0.094146073 1
4.0048289 -8.0926533 -0.091044955 1
5.0409245 -8.123311 -0.087282643 1
6.5942655 -8.1284819 -0.084057853 1
-0.68941021 -7.9164863 -0.10324438 1
2.720979 -8.0015812 -0.0928232 1
3.0015318 -7.9250746 -0.093177684 1
3.4940233 -8.0287237 -0.091039382 1
4.7349715 -7.9597216 -0.088412434 1
5.6175637 -8.0518484 -0.08632575 1
-2.4299638 -7.782795 -0.10522623 1
-1.0581694 -7.7718964 -0.10224515 1
0.71479607 -7.8132639 -0.098123044 1
1.0389127 -7.8503766 -0.097483695 1
1.3578233 -7.8643017 -0.096134081 1
1.6670825 -7.8632531 -0.095407739 1
1.9689603 -7.8409395 -0.093830995 1
2.2578466 -7.8151016 -0.094602488 1
3.7575879 -7.9081593 -0.091301352 1
4.2608395 -7.9436474 -0.091743626 1
5.2743459 -7.9102726 -0.086892411 1
6.209003 -7.9282794 -0.082756311 1
-4.1620688 -7.6462317 -0.10833018 1
0.049643993 -7.6770058 -0.099762239 1
0.38674545 -7.752852 -0.098272428 1
2.5404773 -7.7605109 -0.092571639 1
3.2708576 -7.8142271 -0.089151628 1
4.0072021 -7.771884 -0.09023615 1
4.495717 -7.7602448 -0.087138467 1
4.963644 -7.7634859 -0.08658465 1
5.8363867 -7.8112168 -0.086089954 1
6.7986507 -7.8307576 -0.083797947 1
-2.8318815 -7.5261002 -0.10354372 1
-1.4213753 -7.5963154 -0.10065014 1
-0.28035402 -7.5661354 -0.098867625 1
2.8128841 -7.6854758 -0.089067154 1
3.0712266 -7.6289144 -0.091696382 1
3.5266774 -7.7076879 -0.087904222 1
5.491147 -7.6912098 -0.085978873 1
1.0271292 -7.5079622 -0.094241932 1
1.3203452 -7.5432391 -0.09389846 1
1.604856 -7.5684013 -0.095130973 1
1.8881996 -7.5652595 -0.093939923 1
2.1657345 -7.5398211 -0.091342933 1
3.3209395 -7.5411701 -0.090291396 1
3.7702582 -7.592834 -0.086864591 1
4.2415466 -7.619575 -0.087472327 1
4.7198048 -7.5874281 -0.085610591 1
5.1770482 -7.56286 -0.084663659 1
6.4070973 -7.6546121 -0.081410006 1
-1.7928267 -7.4023328 -0.10131875 1
-0.61136818 -7.4329014 -0.098338477 1
0.42327619 -7.3875051 -0.096572824 1
0.71919227 -7.4695067 -0.097917989 1
2.4321854 -7.5081034 -0.090430856 1
2.6880124 -7.4751658 -0.092085332 1
3.5589232 -7.4340568 -0.08690235 1
4.0028996 -7.4760141 -0.087196581 1
4.4658737 -7.4743948 -0.08752685 1
6.031806 -7.5566878 -0.083381146 1
6.9664669 -7.5116248 -0.078891188 1
-6.5827398 -7.2283511 -0.1122646 1
-4.6009631 -7.2797456 -0.10643724 1
-3.2521389 -7.2520967 -0.10582905 1
-0.93603444 -7.2713604 -0.097084552 1
0.12687588 -7.2851739 -0.095277041 1
1.7652885 -7.3063178 -0.092273138 1
2.0245481 -7.3129172 -0.09269058 1
2.9383194 -7.4092374 -0.089381903 1
3.1777866 -7.3440952 -0.089277409 1
4.2233577 -7.3468466 -0.086604968 1
4.9317741 -7.4135942 -0.08494173 1
5.6808863 -7.4492569 -0.08082924 1
-2.1619136 -7.1806355 -0.10266601 1
-0.17996097 -7.1737223 -0.096799441 1
0.9551059 -7.200953 -0.09350837 1
1.2290018 -7.2530427 -0.093072467 1
1.5017451 -7.2830567 -0.091594413 1
2.2806196 -7.2960835 -0.091148719 1
2.5287452 -7.2679329 -0.090110667 1
2.7693183 -7.2263455 -0.088897064 1
3.4079635 -7.2603021 -0.087386325 1
3.7868271 -7.3354936 -0.087262496 1
4.6730776 -7.3087597 -0.084538855 1
5.3734407 -7.3541746 -0.081731148 1
6.2079906 -7.2972631 -0.079643056 1
6.5823183 -7.3727212 -0.078229174 1
-1.2657163 -7.0925941 -0.097782061 1
0.68385303 -7.1240034 -0.092414707 1
3.0009038 -7.1824698 -0.089835145 1
3.6283734 -7.1720505 -0.086627036 1
4.0034928 -7.2221637 -0.086267725 1
4.4328203 -7.2121754 -0.0863709 1
5.1276569 -7.2284932 -0.082835861 1
5.868968 -7.2278914 -0.080288261 1
-5.0492277 -6.8854294 -0.10796119 1
-3.6190975 -6.9209933 -0.10330162 1
-0.47916174 -7.0335159 -0.096933596 1
0.40333772 -7.0395632 -0.094013676 1
1.4053921 -7.034306 -0.091159351 1
1.6575214 -7.0659194 -0.090221852 1
1.9051216 -7.083384 -0.089571245 1
2.1473286 -7.0883527 -0.089394018 1
2.3844962 -7.0790954 -0.089089677 1
2.6174548 -7.0486078 -0.086811587 1
2.8408597 -7.021317 -0.088127911 1
3.2257409 -7.1054335 -0.085672945 1
3.4410267 -7.0386939 -0.08620096 1
3.8384562 -7.0703659 -0.084797114 1
4.2078319 -7.0949421 -0.083821051 1
4.6266007 -7.0587101 -0.083269507 1
4.8684602 -7.1416821 -0.08231356 1
5.5655994 -7.1592035 -0.082468919 1
-2.4914365 -6.9101777 -0.099731252 1
-1.5930758 -6.8900752 -0.099266343 1
-0.767416 -6.8649158 -0.095748253 1
0.12965083 -6.9277368 -0.093826771 1
0.89964628 -6.9126148 -0.090799995 1
1.1563369 -6.9768038 -0.089755967 1
3.0588601 -6.9751325 -0.087640263 1
3.6477079 -6.9559641 -0.085170738 1
4.0391932 -6.9647861 -0.083920099 1
4.4040842 -6.9713321 -0.083805047 1
5.0494661 -6.9664268 -0.079202645 1
5.3139296 -7.0458374 -0.082172178 1
6.0365372 -6.9950719 -0.077579513 1
6.3714895 -7.0413032 -0.076575734 1
-7.07127 -6.7049513 -0.11180329 1
-0.14168406 -6.7961192 -0.09376961 1
0.64580882 -6.8263698 -0.09074264 1
1.565986 -6.8283954 -0.088701017 1
1.7986739 -6.8625979 -0.088664822 1
2.027473 -6.885097 -0.089272834 1
2.25421 -6.8899589 -0.088877961 1
2.4790826 -6.871047 -0.08578147 1
2.6936934 -6.8592806 -0.0874734 1
2.90469 -6.827693 -0.087081172 1
3.2696886 -6.9107308 -0.085255682 1
3.4721608 -6.8396587 -0.083564833 1
3.844604 -6.8590674 -0.082742207 1
4.2314963 -6.8562994 -0.084159203 1
4.81319 -6.9114852 -0.082900353 1
5.7346196 -6.9449854 -0.079493865 1
-1.8879316 -6.6461973 -0.0970525 1
-1.0526123 -6.676672 -0.095453747 1
0.39385152 -6.7215123 -0.090549201 1
1.092559 -6.7190828 -0.089983992 1
1.3257567 -6.7882924 -0.091060854 1
3.1102331 -6.7742238 -0.083840095 1
3.6673179 -6.7688856 -0.084202349 1
4.0367041 -6.7759953 -0.08576867 1
4.587791 -6.8345923 -0.082158342 1
5.2277126 -6.8040714 -0.080241874 1
5.480505 -6.8476739 -0.078629091 1
-3.9592233 -6.5544801 -0.10031746 1
-2.8179512 -6.6178985 -0.098715454 1
-0.40880466 -6.6441293 -0.093825459 1
0.15156674 -6.5917811 -0.088631235 1
0.85350311 -6.6423578 -0.091183811 1
1.5371981 -6.6061625 -0.086044207 1
1.7546808 -6.6515474 -0.086452298 1
1.9723613 -6.6792502 -0.085836232 1
2.183444 -6.7040343 -0.087933347 1
2.3962767 -6.70263 -0.086473241 1
2.6049643 -6.6867414 -0.084360041 1
2.8059673 -6.6723981 -0.085629992 1
3.0034859 -6.6380124 -0.08443559 1
3.3078344 -6.727788 -0.084928691 1
3.4989123 -6.6647367 -0.084148809 1
3.8529916 -6.6772976 -0.081628621 1
4.213872 -6.6578927 -0.081712142 1
4.4136782 -6.7378473 -0.083652981 1
4.7604957 -6.6914296 -0.080272682 1
4.9867268 -6.7543664 -0.081370912 1
5.8869905 -6.724864 -0.07543461 1
6.1992064 -6.7710094 -0.077316709 1
-5.4185123 -6.4305239 -0.10455219 1
-1.3181784 -6.4586864 -0.093373992 1
-0.65806675 -6.462894 -0.091563642 1
0.62755954 -6.5351915 -0.088647768 1
1.3162807 -6.5508165 -0.0868368 1
2.076885 -6.5272145 -0.085787192 1
2.2783191 -6.544601 -0.086129487 1
2.4786749 -6.5441422 -0.084846422 1
2.6734092 -6.5391426 -0.085443527 1
3.1948256 -6.5977716 -0.084356211 1
3.3802571 -6.5452943 -0.083516687 1
3.6823072 -6.5891662 -0.08232104 1
4.0307198 -6.5825324 -0.080163725 1
4.582252 -6.6029763 -0.080430225 1
5.1462593 -6.587718 -0.078471348 1
5.3874693 -6.6248956 -0.078102186 1
5.6385202 -6.6529837 -0.076572821 1
-2.1685467 -6.3774586 -0.094997212 1
-0.10445547 -6.4603086 -0.091435403 1
0.38910365 -6.4282551 -0.090905376 1
0.8751142 -6.394886 -0.088499069 1
1.0980699 -6.476778 -0.086591192 1
1.4548658 -6.4119906 -0.088727653 1
1.6635327 -6.4637556 -0.087718822 1
1.8755059 -6.4931469 -0.08426626 1
2.8661728 -6.5112319 -0.082685217 1
3.0514607 -6.4914956 -0.085028291 1
3.2331576 -6.4495888 -0.083872579 1
3.5593915 -6.486165 -0.083269566 1
3.8593159 -6.5136471 -0.082677513 1
4.203629 -6.4928851 -0.08205238 1
4.3849339 -6.5455108 -0.080813318 1
4.7409668 -6.4642715 -0.077510245 1
4.9216661 -6.5414176 -0.077851266 1
6.037941 -6.5165625 -0.074846759 1
6.3431902 -6.5383844 -0.075281851 1
-3.1391046 -6.3020506 -0.09953326 1
-0.90614247 -6.2674203 -0.091096759 1
-0.33502316 -6.2932353 -0.089584686 1
0.16775179 -6.2913365 -0.089554176 1
0.65505242 -6.2957196 -0.090061396 1
1.2566679 -6.3320322 -0.085563809 1
1.7855753 -6.3173428 -0.085335597 1
1.9814879 -6.35221 -0.083971627 1
2.17238 -6.382792 -0.084952429 1
2.3651958 -6.3916912 -0.083055519 1
2.5499027 -6.4066648 -0.086183913 1
2.7376294 -6.3875003 -0.082559809 1
2.917351 -6.3772464 -0.084486328 1
3.0948744 -6.3428192 -0.082201317 1
3.4088757 -6.3948116 -0.081589766 1
3.5786533 -6.3387122 -0.081340387 1
3.7315364 -6.4150615 -0.081961617 1
4.0260763 -6.4175367 -0.079343848 1
4.3643064 -6.3823371 -0.079973891 1
4.544764 -6.4214802 -0.07833115 1
5.0759835 -6.393014 -0.077098019 1
5.2990999 -6.4240952 -0.077411279 1
5.5430059 -6.4518666 -0.078575596 1
5.7875719 -6.4590716 -0.075437933 1
-7.4648581 -6.1195111 -0.10742088 1
-4.2915363 -6.1628556 -0.09957616 1
-1.5729358 -6.21979 -0.09174671 1
1.0483873 -6.2541203 -0.087209828 1
1.3952016 -6.2041793 -0.086660974 1
1.5912786 -6.265676 -0.085493349 1
2.0808609 -6.2218752 -0.082653552 1
2.261658 -6.250145 -0.083464488 1
2.4415979 -6.2660122 -0.083881646 1
2.6199052 -6.2693505 -0.083746329 1
2.7955186 -6.2612429 -0.083248362 1
2.9677618 -6.2416673 -0.082230024 1
3.2666674 -6.3097897 -0.083023608 1
3.43367 -6.2634373 -0.082471736 1
3.7423742 -6.274199 -0.080952719 1
3.896523 -6.3360243 -0.080534317 1
4.0546703 -6.2515187 -0.079556875 1
4.1898565 -6.3329687 -0.081274912 1
4.5161805 -6.2659326 -0.077837057 1
4.6980357 -6.2979379 -0.077511474 1
4.8933001 -6.3275728 -0.076493666 1
6.1729403 -6.3014665 -0.072951347 1
-2.4465942 -6.0908561 -0.095228814 1
-1.1501863 -6.055449 -0.09202683 1
-0.56906605 -6.116322 -0.090494327 1
-0.055394888 -6.1441164 -0.090349622 1
0.45469117 -6.1653123 -0.086926103 1
0.84738171 -6.1556735 -0.087084539 1
1.2064484 -6.1215572 -0.085410081 1
1.7146813 -6.1365156 -0.082927547 1
1.8970546 -6.1866622 -0.083258674 1
2.2027135 -6.1167383 -0.083955951 1
2.3777878 -6.1322999 -0.081941895 1
2.5471878 -6.1482573 -0.083398171 1
2.7178595 -6.1418495 -0.080964208 1
2.8832152 -6.1353703 -0.081565298 1
3.1358078 -6.2119942 -0.080946952 1
3.2991278 -6.1701121 -0.078570776 1
3.4575343 -6.1307468 -0.079558492 1
3.595171 -6.2085052 -0.081782237 1
3.7503128 -6.142375 -0.079958901 1
3.8988643 -6.197803 -0.079185098 1
4.2051506 -6.1590285 -0.078121886 1
4.3414669 -6.226965 -0.0787929 1
4.6646757 -6.1545758 -0.078901276 1
4.8401442 -6.1650062 -0.075362593 1
5.0404158 -6.1923194 -0.077357449 1
5.2196846 -6.2388625 -0.075925402 1
5.4420586 -6.2571216 -0.076476581 1
5.6790433 -6.264184 -0.075823084 1
5.9267731 -6.2637615 -0.074678093 1
-5.7467089 -5.938611 -0.1009609 1
-3.4036274 -5.9440017 -0.096111365 1
-1.8172722 -5.9614267 -0.09100607 1
-0.25782442 -5.9702759 -0.088116005 1
0.24182439 -6.0357461 -0.089079633 1
0.65162218 -6.0414138 -0.086603954 1
1.0188283 -6.0279465 -0.084940746 1
1.3452337 -6.0096402 -0.085713975 1
1.5248287 -6.0859499 -0.086434275 1
1.8509954 -6.0470743 -0.086306937 1
2.0303311 -6.0814319 -0.083133116 1
2.4489202 -6.0252233 -0.081396595 1
2.6127696 -6.0316024 -0.080078878 1
2.7714016 -6.0406976 -0.082831673 1
2.9305892 -6.0277328 -0.081344642 1
3.0463591 -6.1125417 -0.079895034 1
3.2048233 -6.0901127 -0.081159569 1
3.3595815 -6.0491266 -0.079110585 1
3.6108265 -6.078125 -0.07883428 1
3.9000244 -6.0733757 -0.079455175 1
4.0479016 -6.112875 -0.076822951 1
4.3492932 -6.06318 -0.077523045 1
4.4888821 -6.1244931 -0.079165295 1
5.3530912 -6.0800328 -0.074476525 1
5.569417 -6.0803571 -0.073509373 1
5.8103609 -6.0806012 -0.075092927 1
-10.277976 -5.7494316 -0.113286 1
-0.78648019 -5.9162445 -0.090076335 1
0.053699732 -5.8762193 -0.086544372 1
0.45819473 -5.9151421 -0.087063625 1
0.82938099 -5.9263549 -0.08643394 1
1.1689111 -5.9204059 -0.084886312 1
1.5144947 -5.9115329 -0.081997745 1
1.6810102 -5.9858341 -0.084425271 1
1.9541482 -5.9341788 -0.081814848 1
2.1163504 -5.9813275 -0.083799221 1
2.2833195 -6.0083632 -0.082560174 1
2.5109375 -5.9267731 -0.0818277 1
2.6672192 -5.9332037 -0.08074902 1
2.8212755 -5.9304152 -0.079657584 1
3.086292 -6.0052962 -0.079626739 1
3.2378304 -5.9786086 -0.07927981 1
3.3856306 -5.9489441 -0.080641277 1
3.5101643 -6.0120921 -0.080945104 1
3.6553869 -5.9575801 -0.07945025 1
3.7600851 -6.025744 -0.080609202 1
3.9005961 -5.9497089 -0.076799698 1
4.0407686 -5.9879503 -0.075691521 1
4.1952033 -6.0373564 -0.079548366 1
4.4877863 -5.9647384 -0.077966213 1
4.6235352 -6.0060806 -0.076143369 1
4.7981672 -6.0251656 -0.075865902 1
4.9770374 -6.0334907 -0.075076774 1
5.1700425 -6.0400901 -0.074269779 1
6.0559797 -6.0664358 -0.074100427 1
-4.5979753 -5.7404871 -0.099440724 1
-2.6924613 -5.7744422 -0.09382569 1
-1.3795776 -5.8217635 -0.092703626 1
-0.45658088 -5.7844605 -0.087463446 1
0.6517868 -5.804327 -0.085649878 1
0.99491358 -5.82022 -0.084685326 1
1.3445088 -5.8336577 -0.082421221 1
1.625304 -5.8205485 -0.082480602 1
1.7884889 -5.8838224 -0.08245755 1
2.0416169 -5.8359103 -0.080434695 1
2.1979513 -5.8765163 -0.081024095 1
2.3557405 -5.9040184 -0.080546498 1
2.5744703 -5.8250566 -0.078743339 1
2.720957 -5.8393817 -0.080821007 1
2.8677769 -5.8384886 -0.080576003 1
2.9921246 -5.8764915 -0.080329381 1
3.1200962 -5.9069276 -0.080284424 1
3.2651672 -5.8805704 -0.079790674 1
3.4065042 -5.8459024 -0.079064101 1
3.5287504 -5.899754 -0.077898242 1
3.6676357 -5.8507242 -0.07765723 1
3.7939754 -5.8902373 -0.075872429 1
4.0393744 -5.8841553 -0.078730151 1
4.1778998 -5.906951 -0.075391449 1
4.3306947 -5.9405036 -0.077263936 1
4.7540388 -5.890213 -0.075528428 1
4.9310722 -5.9037433 -0.076981582 1
5.1094952 -5.902564 -0.076545767 1
5.3003321 -5.896831 -0.075379737 1
5.4803519 -5.9215045 -0.074284188 1
5.6921749 -5.9069719 -0.072497919 1
5.9246368 -5.8879333 -0.072183833 1
-2.0510697 -5.6843777 -0.091449775 1
-0.98543406 -5.695086 -0.088586859 1
-0.13751984 -5.7100415 -0.087124042 1
0.27626634 -5.7703466 -0.086191557 1
0.82344007 -5.7092943 -0.085283846 1
1.1739732 -5.7474751 -0.08427833 1
1.4659189 -5.744226 -0.081841156 1
1.7299476 -5.7271199 -0.08052434 1
1.8781445 -5.797554 -0.084433593 1
2.1227193 -5.7497272 -0.080843545 1
2.2723181 -5.7874446 -0.081263855 1
2.4692149 -5.7702451 -0.079766743 1
2.6566472 -5.746243 -0.080367975 1
2.7993851 -5.7480445 -0.078851283 1
2.9392469 -5.7454662 -0.078803688 1
3.0765266 -5.7389302 -0.080273874 1
3.15416 -5.8125215 -0.080366708 1
3.2930629 -5.7820153 -0.078161255 1
3.4284394 -5.7549329 -0.079916567 1
3.543874 -5.8052964 -0.078811929 1
3.6753521 -5.7476244 -0.074792594 1
3.8012936 -5.7924981 -0.076527566 1
3.9308078 -5.833549 -0.07829228 1
4.0601301 -5.7613068 -0.077414967 1
4.1681399 -5.7991214 -0.07594531 1
4.3095379 -5.8217635 -0.075680755 1
4.4588804 -5.8385534 -0.074994683 1
4.6126647 -5.8488555 -0.074186243 1
4.8743973 -5.7661166 -0.07359276 1
5.0439959 -5.761517 -0.072245866 1
-7.8404541 -5.5003424 -0.10605709 1
-3.6409252 -5.5617938 -0.092950612 1
-1.5682802 -5.5577469 -0.089191072 1
-0.65380859 -5.5875206 -0.088980868 1
0.10459018 -5.6102486 -0.08490327 1
0.47874117 -5.6704512 -0.085501976 1
1.015336 -5.6413131 -0.083203889 1
1.3064959 -5.6603293 -0.082628943 1
1.5725315 -5.6622372 -0.082685277 1
1.8239741 -5.6486759 -0.081515968 1
1.9729755 -5.7037988 -0.081019603 1
2.0811272 -5.6376834 -0.081765197 1
2.2238989 -5.6807423 -0.082227856 1
2.3704288 -5.7075834 -0.080058649 1
2.4344916 -5.6257024 -0.078583904 1
2.5715544 -5.6481552 -0.078898475 1
2.7075539 -5.6641207 -0.079978622 1
2.8441844 -5.6657157 -0.078676917 1
2.9783547 -5.662168 -0.078469813 1
3.1109262 -5.6461163 -0.07638225 1
3.2122612 -5.7142911 -0.077833995 1
3.2400308 -5.6338682 -0.078656562 1
3.3442957 -5.6821594 -0.075293317 1
3.4730866 -5.6536779 -0.07682281 1
3.5586839 -5.702601 -0.074835174 1
3.6861434 -5.6596622 -0.07575535 1
3.8040986 -5.6966968 -0.075631127 1
3.9293623 -5.6845551 -0.076229163 1
4.0541153 -5.6613135 -0.075648576 1
4.1807771 -5.6761227 -0.073762655 1
4.2901344 -5.7087398 -0.073093571 1
4.4350247 -5.7309604 -0.07595139 1
4.5832996 -5.7380128 -0.075004831 1
4.7367783 -5.740345 -0.074634388 1
5.2215762 -5.7523699 -0.0726448 1
5.4092407 -5.7355685 -0.07140132 1
5.5930614 -5.7540507 -0.072105855 1
5.8051248 -5.730504 -0.071393088 1
6.0364609 -5.6999288 -0.07163009 1
-6.059392 -5.4197569 -0.10006022 1
-2.9101934 -5.4342475 -0.091974743 1
-1.1720588 -5.4582958 -0.087682217 1
-0.31118441 -5.5242243 -0.08603695 1
0.31556964 -5.5217457 -0.084785871 1
0.66792417 -5.5776529 -0.082744047 1
0.86240315 -5.5235758 -0.082191817 1
1.1536987 -5.5623298 -0.082377374 1
1.4259397 -5.5770979 -0.081157476 1
1.5342681 -5.5060468 -0.081780478 1
1.6750686 -5.5856748 -0.082947612 1
1.8012668 -5.5220189 -0.080370724 1
1.9424875 -5.5811243 -0.07966283 1
2.0224645 -5.5110321 -0.079876907 1
2.1577132 -5.5604939 -0.080352008 1
2.2951288 -5.5992823 -0.08015123 1
2.356437 -5.531826 -0.08039923 1
2.4895382 -5.5585923 -0.079706542 1
2.620651 -5.5819855 -0.081037536 1
2.7546697 -5.5863075 -0.077958122 1
2.8848336 -5.5912313 -0.078310795 1
3.0141277 -5.5850501 -0.077274881 1
3.1409283 -5.5744824 -0.077440336 1
3.265512 -5.5560107 -0.077281639 1
3.37713 -5.5674181 -0.076981671 1
3.4905844 -5.5743475 -0.077684291 1
3.5982881 -5.6144171 -0.076787494 1
3.7653589 -5.592546 -0.077916294 1
3.9286962 -5.5532222 -0.076932281 1
4.0452824 -5.5677118 -0.073844053 1
4.1739044 -5.5901475 -0.076402612 1
4.3025537 -5.6022372 -0.076501489 1
4.4122949 -5.6266651 -0.07536298 1
4.5528698 -5.6325855 -0.075290486 1
4.6986084 -5.6289268 -0.07358475 1
4.8486838 -5.619935 -0.0722804 1
4.9899411 -5.642056 -0.073173866 1
5.163723 -5.6345124 -0.074487112 1
5.3328457 -5.6081505 -0.072096519 1
5.5230794 -5.5854573 -0.072709382 1
5.7047873 -5.5912585 -0.072761431 1
6.272933 -5.6568742 -0.069975682 1
-2.2560461 -5.3832393 -0.090656042 1
-0.80799317 -5.3605318 -0.084507093 1
-0.061341047 -5.4389715 -0.084712394 1
0.51226521 -5.4398603 -0.082648866 1
0.71029139 -5.398633 -0.083106503 1
1.0071063 -5.4523153 -0.081792571 1
1.2774886 -5.4875827 -0.082193732 1
1.3977563 -5.4163733 -0.080567412 1
1.6634837 -5.4519677 -0.080570422 1
1.8855469 -5.4573369 -0.081488118 1
2.0924244 -5.4513302 -0.081309758 1
2.2570946 -5.4607911 -0.078940719 1
2.4135368 -5.4669695 -0.079828218 1
2.5802741 -5.4584246 -0.078135222 1
2.670938 -5.5043774 -0.076539122 1
2.7688904 -5.4784818 -0.077139981 1
2.862061 -5.4497252 -0.077623568 1
2.9525011 -5.4846373 -0.077139027 1
3.0737484 -5.4808269 -0.0776795 1
3.1935813 -5.4666615 -0.076789536 1
3.2883973 -5.4899225 -0.078691311 1
3.4057188 -5.4578128 -0.075536579 1
3.5059988 -5.4956307 -0.075578257 1
3.6101995 -5.5312309 -0.075726137 1
3.6219039 -5.460587 -0.076661475 1
3.7266765 -5.487113 -0.075846367 1
3.8374269 -5.5185509 -0.077300787 1
3.9491906 -5.456871 -0.075433113 1
4.0414877 -5.4860206 -0.075318217 1
4.1606665 -5.5008011 -0.075353369 1
4.2861176 -5.5085726 -0.07509286 1
4.4160814 -5.5167084 -0.076765724 1
4.524168 -5.531064 -0.074328639 1
4.6621141 -5.5266042 -0.073396839 1
4.8061633 -5.514823 -0.071808122 1
4.9547224 -5.4980445 -0.070813082 1
5.0914555 -5.5068455 -0.069785237 1
5.2646313 -5.4913006 -0.071870677 1
5.9082904 -5.551167 -0.070155263 1
6.1336555 -5.5059366 -0.06961146 1
-4.8206911 -5.277729 -0.094483018 1
-1.7527828 -5.2828074 -0.088303924 1
-0.46963334 -5.3228564 -0.084379092 1
0.16983247 -5.3555431 -0.081973761 1
0.36590219 -5.2893929 -0.082336247 1
0.86295271 -5.3341913 -0.082529262 1
1.1421282 -5.3799987 -0.080022596 1
1.2600117 -5.3222594 -0.08184842 1
1.5282137 -5.3730755 -0.081156008 1
1.6265383 -5.3131652 -0.080804564 1
1.756199 -5.3876705 -0.080185309 1
1.8418336 -5.3272724 -0.078355521 1
1.9657466 -5.3935204 -0.079803638 1
2.0377712 -5.3359518 -0.079064049 1
2.1631474 -5.3853102 -0.078147098 1
2.2511287 -5.3370895 -0.07956028 1
2.3740232 -5.3728046 -0.078095913 1
2.461446 -5.3601952 -0.078033105 1
2.5423446 -5.3504443 -0.08017724 1
2.6618567 -5.3685794 -0.078556031 1
2.8009295 -5.3482265 -0.07611385 1
2.8965523 -5.3919291 -0.079367518 1
2.9732869 -5.3571205 -0.077097036 1
3.044457 -5.3287477 -0.078065306 1
3.12849 -5.3800254 -0.076906309 1
3.2413957 -5.3664837 -0.076714076 1
3.3427987 -5.3766699 -0.075817257 1
3.4829254 -5.4044185 -0.075570971 1
3.5553479 -5.3516974 -0.076255575 1
3.6311855 -5.3887296 -0.074999332 1
3.7360349 -5.3792558 -0.074817508 1
3.8395638 -5.3977132 -0.074209571 1
3.9452801 -5.3739829 -0.072656557 1
4.0554118 -5.3885684 -0.07289692 1
4.1516385 -5.4194207 -0.07617192 1
4.268168 -5.4222069 -0.07413698 1
4.3931971 -5.4234276 -0.074278086 1
4.516767 -5.4153223 -0.07223168 1
4.6287212 -5.4296932 -0.072702646 1
4.7674074 -5.4204607 -0.07315015 1
4.9112325 -5.4024258 -0.07240776 1
5.0573387 -5.3767605 -0.071182624 1
5.1965113 -5.3802748 -0.071432307 1
5.4364653 -5.4609842 -0.071733445 1
5.6165533 -5.4215078 -0.069676355 1
5.7855539 -5.4080496 -0.066631891 1
6.3684187 -5.4514179 -0.068539336 1
-3.8666029 -5.1618075 -0.092267483 1
-1.3437364 -5.2060752 -0.087201297 1
-0.20518541 -5.2489362 -0.082018688 1
0.012437582 -5.1892371 -0.084904008 1
0.56960416 -5.2593455 -0.08281894 1
0.73609054 -5.1984377 -0.080010094 1
1.0087699 -5.2658854 -0.079468273 1
1.1351904 -5.2119775 -0.080207109 1
1.4032118 -5.2788668 -0.079087541 1
1.5052564 -5.2252135 -0.079367451 1
1.7142634 -5.2601199 -0.080567159 1
1.7967234 -5.2083454 -0.079270929 1
1.9145305 -5.277905 -0.079904653 1
2.0129743 -5.236052 -0.080013394 1
2.164361 -5.2609868 -0.0779562 1
2.309912 -5.2802391 -0.07821162 1
2.369765 -5.2216225 -0.074787147 1
